# .PCD v0.7 - Point Cloud Data file format
VERSION 0.7
FIELDS x y z intensity
SIZE 4 4 4 4
TYPE F F F F
COUNT 1 1 1 1
WIDTH 1386
HEIGHT 1
VIEWPOINT 0 0 0 1 0 0 0
POINTS 1386
DATA ascii
-4.2372169 7.8182974 5.117322 18.5
-4.1586685 7.8993864 5.072494 18.1
62.97757 7.8951473 5.0777111 16
63.045033 7.8878632 5.0867214 15
63.744946 7.9667225 5.1644011 17.5
63.915722 7.9298806 5.1655173 16.666666
64.148132 7.908905 5.1289897 15.333333
64.256523 7.8783412 5.1052632 16.285715
-11.247206 8.0328646 5.0653744 18
-11.097517 8.0995913 5.1043878 18.222221
-10.974861 8.1536598 5.1032305 17
-5.059042 8.1857252 5.0573044 15
-4.8730187 8.1131449 5.0310645 12.333333
-4.1144891 8.1118765 5.1371961 20.5
63.177376 8.0610266 5.1596375 16
63.369267 8.1172762 5.0078702 17
63.595718 8.0441685 5.1456747 17
63.689491 8.1046238 5.164341 17.25
63.924824 8.0613337 5.0755744 16.333334
64.094879 8.0213251 5.0856037 16.333334
-11.157674 8.319808 5.1579962 17
-10.978958 8.2040024 5.0322061 17
-5.2403965 8.3555126 5.0442758 15.5
-5.1044216 8.2860241 5.0842638 10.5
-4.205349 8.3105001 5.068316 14
-4.1096468 8.2908306 5.132513 17.25
-3.9245155 8.3007593 5.1607594 16
0.014489174 8.3525925 5.0747709 8.5
63.324764 8.2728405 5.1769376 14
63.457321 8.3190012 5.0886712 16
63.793564 8.2906542 5.1860199 17
74.46209 8.3969269 5.0095363 14
-12.298543 8.5242596 5.0924516 17.799999
-12.190124 8.5197983 5.012454 18
-5.4078484 8.5831251 5.1067457 17
-5.2490325 8.4643908 5.1136141 13.8
-5.103138 8.5194931 5.172266 24
-4.0211554 8.4488297 5.0462046 11
-3.8642495 8.5160179 5.0846753 15.333333
-3.7569408 8.5034056 5.1539044 13
0.12616587 8.4775991 5.1263843 32.666668
0.25138712 8.5599613 5.1377087 49.900002
63.338612 8.554081 5.1134624 15
74.238083 8.4883604 5.0020967 1
74.410835 8.4893923 5.0066462 16
-5.2699394 8.6343088 5.0639887 7
-4.3365669 8.6036654 5.0142627 16
-3.8748558 8.7005062 5.0978336 15.7
-3.7362659 8.738102 5.0392809 13.75
0.3371174 8.7017784 5.1416869 47.68182
0.48542786 8.7897816 5.1048446 116
62.670238 8.7149496 5.0982685 14.5
62.964233 8.7444677 5.0994477 19.4
63.183872 8.7681274 5.1338563 17
63.268734 8.674016 5.1396384 17
63.46772 8.7623863 5.1265812 16.5
63.659317 8.7426519 5.1345387 11
64.098152 8.6527176 5.1537609 12
64.232666 8.7121181 5.1882601 12
66.282455 8.6048031 5.1509829 15
74.333221 8.7238016 5.0067902 1
74.51268 8.6246758 5.0187397 42
74.661926 8.6900234 5.1408219 20
-7.112196 8.9819117 5.0680943 18
-5.6976666 8.9223518 5.1126814 19.75
-3.8715215 8.8250523 5.1260509 16.5
-3.6682432 8.8713751 5.0507865 14.571428
-3.523756 8.8824768 5.1171808 12.5
-3.2543728 8.9295282 5.1352015 13.428572
-3.1894541 8.9899864 5.1498752 26
0.35486507 8.8803806 5.1428261 18.625
0.43683401 8.9047623 5.1646228 94.166664
62.525585 8.9033308 5.0382466 13.4
62.681599 8.9007282 5.0984774 14.666667
62.907757 8.893405 5.0989652 22.4
63.545357 8.8716469 5.0868497 18
63.604248 8.836256 5.093039 17
66.361618 8.9388418 5.070663 14.5
66.423721 8.8384581 5.0741873 12
74.359825 8.9389763 5.0078602 1
74.544266 8.926321 5.0468774 19.5
74.660912 8.8920279 5.1713028 0.25
-5.650074 9.0665207 5.0723181 30.666666
-3.7120914 9.0467339 5.0339932 13
-3.4856367 9.1451998 5.0775657 25
-3.2619696 9.1067963 5.1401496 27
-3.1285694 9.0863609 5.0923057 16.666666
-2.867471 9.1310368 5.1018987 16.714285
-2.7850411 9.1691256 5.0893145 17
0.35309601 9.0922155 5.1519794 21.5
0.45554924 9.0346508 5.1707444 77
62.497616 9.0978651 5.0467677 22.846153
62.704449 9.0518446 5.1144853 12
62.881187 9.0193892 5.1066504 15
63.475235 9.1733418 5.0429792 18
64.085884 9.1660213 5.0609093 15
74.288643 9.1483746 5.0916824 1
74.446922 9.1667747 5.1386127 1
74.66423 9.0953588 5.1514735 1.3333334
75.391586 9.0915604 5.1603155 1
-6.3604832 9.356432 5.0533533 17
-6.0942802 9.3698997 5.1748543 16
-3.437834 9.2278013 5.0535827 15.333333
-3.3476391 9.2303667 5.111351 18
-2.740582 9.2552977 5.1017427 15.285714
0.29269981 9.2158175 5.1458912 12
62.372452 9.2942362 5.0940847 8.2222223
62.448902 9.2594585 5.047718 5.1999998
62.624031 9.213583 5.1294575 8
63.361526 9.3145666 5.0924673 15
63.4086 9.2730513 5.0962281 16
64.894653 9.2091093 5.0077653 16
73.920891 9.2711763 5.1700802 0
74.106079 9.3418522 5.0870714 1
74.297226 9.3539324 5.0038872 1
74.654907 9.29564 5.0870247 1
74.922028 9.2479649 5.189549 3
75.173203 9.2845526 5.1474776 1
-7.2386603 9.5490265 5.0724325 17
-7.1725235 9.5943813 5.0984368 18
-6.3139954 9.4403257 5.0345888 16.666666
-6.1135387 9.5448713 5.1769695 17
61.780792 9.5631332 5.0086737 17
61.850189 9.5860968 5.065825 7
62.332657 9.5033884 5.0959644 2
73.227585 9.5929441 5.1834416 10
74.11248 9.5469227 5.064085 1
74.499153 9.5782871 5.1701107 1.5
74.781181 9.5476122 5.001081 1
74.948746 9.4876232 5.0826197 1.5
75.031609 9.5557833 5.0252419 10
-7.2757235 9.6789646 5.0503359 17
-7.1866846 9.719903 5.0402064 16
-6.2038765 9.7081518 5.0500493 14
61.757294 9.7045078 5.097312 22.6
61.844818 9.7172642 5.113203 13
73.154312 9.6393042 5.0865641 1.5
73.295372 9.7732325 5.1327968 5.3333335
73.686516 9.7043667 5.0836906 1.5
74.350113 9.7698593 5.1739655 1
74.509521 9.700551 5.1296344 2.6666667
74.686867 9.6511316 5.0566826 5
74.928864 9.7100039 5.0364447 2
75.092598 9.6767282 5.0334578 2
-7.1038752 9.9169827 5.1620054 18
-6.0709839 9.8117971 5.041595 10
-5.8552985 9.8935719 5.1226692 17
-5.7602386 9.9726572 5.0039101 16
61.757526 9.8879786 5.0664692 20.916666
61.89827 9.8333607 5.0755091 11
73.192528 9.8902473 5.1208019 1
73.261368 9.9050016 5.1279092 6.75
74.394775 9.8981934 5.1808472 1
74.589157 9.8456316 5.0522127 4
-5.7057486 10.063677 5.001668 16
61.36718 10.134707 5.0335445 15
61.509415 10.095842 5.0947437 16
61.722492 10.06212 5.069828 17.222221
62.025696 10.105766 5.0931349 12
63.773003 10.143265 5.0850058 14.5
72.546982 10.168903 5.0714135 4
72.763512 10.13606 5.0449519 2.6666667
72.905365 10.116161 5.1638346 4
73.118362 10.065245 5.0895934 2.5999999
73.256325 10.017065 5.1046677 1.5
61.285099 10.319936 5.0486522 18.666666
61.513927 10.289457 5.1275578 17.875
61.794193 10.316882 5.0505033 17
61.860199 10.253201 5.0544934 16.5
63.711014 10.261379 5.0773005 15.75
65.343071 10.2822 5.1402397 0
69.695969 10.325863 5.1185527 13.5
72.594986 10.299985 5.0789795 7
72.671745 10.274876 5.0176463 6.5
72.835007 10.265272 5.1603971 2
60.959808 10.586584 5.0069103 13
61.130566 10.51258 5.078382 16
61.296669 10.472279 5.1153173 19
61.43705 10.46665 5.1709757 17
63.585983 10.55697 5.1027837 17
63.637581 10.447773 5.1006012 17
69.582092 10.560853 5.1167932 14
69.69191 10.490921 5.1263556 14
72.370613 10.488811 5.0106373 11
72.561752 10.406047 5.0788507 9
72.728195 10.580246 5.1572304 3
72.98674 10.428404 5.1779027 1
6.9294705 10.697495 5.0730886 5.75
7.1038895 10.721856 5.1062074 12.066667
7.2451687 10.772359 5.1096745 12.375
60.917641 10.736074 5.0571566 15.25
61.059532 10.70857 5.1094918 14.8
65.364929 10.765913 5.0344143 14
65.45623 10.684905 5.0411549 14
68.935371 10.733521 5.0489864 16
69.425247 10.650839 5.1027384 13
-5.6016235 10.963737 5.041801 14
-5.5868039 10.9569 5.0436563 17
7.3410201 10.850363 5.1156526 57.714287
7.4562387 10.938334 5.1061358 55.294117
60.936432 10.913106 5.0993943 13.4
61.028614 10.913627 5.1774874 15.75
74.802567 10.876254 5.0342093 8
76.715248 10.906253 5.0131536 8
-25.13802 11.187732 5.0212593 1
-5.5168405 11.071483 5.0441575 14
-4.2053432 11.173573 5.0429354 14.5
7.5232325 11.085905 5.0913014 44.650002
7.6042843 11.19243 5.1202173 106
60.953621 11.070219 5.1503935 13.2
61.324966 11.132549 5.0479655 16
72.832123 11.069554 5.1777205 7
76.700577 11.119906 5.0171504 9
76.829597 11.057683 5.0272107 9
-25.10186 11.388619 5.0213842 1
-6.238472 11.357327 5.1632571 9.5
-6.183466 11.392234 5.1420689 18
-4.2113037 11.291494 5.1918278 15
-4.110343 11.314347 5.0804305 20.5
7.5528979 11.278383 5.0810804 32.285713
60.978256 11.359779 5.1251311 13
61.126972 11.302403 5.1046009 19.333334
61.250759 11.289863 5.0344219 17.75
68.715431 11.269319 5.1843743 9
72.663277 11.385159 5.0028381 1
76.521439 11.272182 5.0049152 9
-6.4614754 11.480746 5.0246835 26.4
-6.2986441 11.536695 5.1205668 10.25
-5.0750656 11.593788 5.015666 17
-4.0305829 11.467062 5.0701342 19.555555
-3.9895234 11.518453 5.1032143 24.75
7.5010986 11.469625 5.0857267 11
60.781097 11.568733 5.0153646 14
60.870674 11.509398 5.0983377 16.538462
61.036938 11.441845 5.0410843 17
61.224922 11.452494 5.0393653 15.5
63.250454 11.537058 5.1448021 15
72.924591 11.47028 5.1392984 12
-7.2014675 11.681048 5.151299 17
-6.4039688 11.712587 5.0337195 24
-6.3114648 11.705792 5.1149993 28.857143
-5.52108 11.679511 5.0719457 14
-4.947566 11.758038 5.0263381 22.799999
-4.0722437 11.735223 5.0806856 18.25
-3.9864531 11.696438 5.1732774 22.5
60.692135 11.720448 5.1020255 15.230769
60.892963 11.678762 5.0264106 21.75
69.193146 11.743311 5.1242771 8
69.265045 11.68253 5.1395559 14
-6.2566109 11.822849 5.0640612 13.5
-6.1150131 11.931644 5.1152105 17
-5.8629742 11.951822 5.0068207 17.5
-5.7803831 11.973289 5.0022912 18
-4.8869987 11.86262 5.0529575 16.166666
-4.0949059 11.870327 5.0792747 23.333334
-3.9493065 11.935798 5.0985684 30
-3.4679723 11.887556 5.0696068 18.1
-3.3322697 11.951753 5.1348157 17
20.447611 11.958703 5.0207024 0
60.536732 11.885773 5.1173086 8.166667
60.676956 11.83842 5.1233239 16.333334
60.825119 11.816316 5.0202179 18
69.14621 11.841627 5.1225734 11
69.265709 11.847299 5.050004 10
-7.0073547 12.088253 5.164443 18
-5.745903 12.109378 5.068553 17.5
-4.1077747 12.018487 5.0739193 24
-3.4097824 12.050605 5.0612421 14
-3.3616486 12.173834 5.0603771 13
14.151568 12.169321 5.0914869 1.8
14.244034 12.158324 5.1217871 0
20.507029 12.034357 5.0201874 0
60.534836 12.06884 5.1040516 3.5
60.753761 12.142151 5.028326 10
60.848778 12.009746 5.0342922 14
69.704742 12.167271 5.1824937 13
-23.736206 12.283606 5.0059195 14
-6.8183756 12.353809 5.0871758 17
-5.6886463 12.218505 5.1219721 18
14.137095 12.263323 5.069541 0
14.274712 12.241241 5.0780029 0.30000001
14.506998 12.311566 5.1150594 0
14.717928 12.359057 5.0860038 0
14.858668 12.353857 5.1045504 0
60.971912 12.366398 5.1275959 12.5
61.024231 12.322449 5.0666647 15.2
-23.694891 12.495571 5.0119519 12.666667
-23.564272 12.520087 5.0980015 12.5
-4.2746029 12.492619 5.0987778 20.5
-4.1299644 12.581549 5.1107936 17.285715
14.087319 12.513743 5.0884557 0
14.70532 12.447616 5.1234317 0
14.900007 12.442654 5.0830169 0.16666667
15.111567 12.485266 5.0747905 0
15.285299 12.543983 5.0898762 0.26923078
15.402973 12.522211 5.1318984 0
60.905266 12.509964 5.0675149 15.5
61.055077 12.50256 5.1616631 5.5
-23.669594 12.67476 5.015646 9.5
-23.51174 12.72883 5.0799828 7.4000001
-4.0351458 12.646098 5.0958223 16
-3.9277906 12.678647 5.0669875 15.818182
13.993568 12.628704 5.0822382 0
14.037589 12.671241 5.1078429 0
15.361484 12.65155 5.1300817 1
15.489182 12.674059 5.1053653 0.9375
15.714569 12.727491 5.1026111 0
15.900694 12.755172 5.1032538 0.095238097
16.010784 12.762473 5.0902462 0.5
60.783989 12.707072 5.0723104 17
60.830395 12.681748 5.0732751 15.166667
61.039047 12.665926 5.1244688 7
63.541451 12.698002 5.0370779 17
63.611435 12.651448 5.0420465 16
64.341125 12.792186 5.0291491 17
64.407021 12.743912 5.0336604 17
66.136154 12.731426 5.0834289 13
-6.5363159 12.971694 5.0069032 30
14.029149 12.953036 5.0262728 0
15.71196 12.808551 5.1966996 0
15.99663 12.801419 5.1398144 0
16.110836 12.833896 5.1045599 0
16.335886 12.879829 5.0984859 0.037037037
16.48967 12.928082 5.1017451 0.32352942
16.670073 12.984544 5.0985312 1.25
60.759449 12.893642 5.1083474 14.5
60.818726 12.823103 5.1139669 12
64.287659 12.887178 5.1323986 14
-24.37184 13.185018 5.1950693 0
-7.6750298 13.045943 5.1649222 29
-6.445785 13.08358 5.0903478 23.666666
-6.3962898 13.198366 5.0025897 32
13.931299 13.113521 5.1045399 0
14.054183 13.048907 5.1409059 0
14.462475 13.05418 5.1030231 0
16.726089 13.039183 5.1198192 0
16.909433 13.086425 5.0882397 0.4375
17.088951 13.132485 5.0926242 0.83333331
17.278135 13.160095 5.0184064 5.909091
17.537418 13.186508 5.0868654 0
17.608494 13.194256 5.1868024 0
60.70145 13.086523 5.1594477 10.75
60.942081 13.108335 5.0529137 15.5
-24.44985 13.26011 5.1500988 6
-23.492842 13.313611 5.0210452 1
-6.368187 13.325912 5.0039473 20
-6.0640655 13.282947 5.0898323 16
13.764961 13.339337 5.0389681 0
13.848318 13.29598 5.0941482 0
14.950288 13.335374 5.1604261 0
15.017048 13.315285 5.1672421 0
17.179417 13.212476 5.1404247 0
17.309343 13.249132 5.1088371 0.9285714
17.507614 13.263041 5.0797567 3.2745099
17.689102 13.328181 5.0799932 1.725
17.858513 13.358967 5.0547895 0
18.029518 13.391584 5.0413079 0
60.572502 13.367242 5.1835384 14
60.778656 13.236051 5.1860132 15
60.910378 13.311401 5.0839067 24.9375
61.004723 13.237804 5.1075873 17
62.373489 13.277353 5.0587807 17
-23.92399 13.53477 5.1133866 1
-23.495333 13.5354 5.0432339 3
-21.890648 13.59269 5.0291014 0
-6.4330592 13.445914 5.1016784 17
-6.3605843 13.496423 5.0930023 16.5
13.772094 13.570579 5.107811 0
13.821949 13.498754 5.1149549 0
17.777506 13.411263 5.1315556 1
17.91358 13.439349 5.1010509 0.6857143
18.104506 13.460215 5.0930257 0.4642857
18.280655 13.504488 5.09478 0.25
18.511381 13.570289 5.1078181 0.029411765
18.662252 13.581445 5.0962753 0.27777779
60.39777 13.503358 5.0852709 15
60.504726 13.524027 5.1236739 15.5
60.714443 13.496538 5.0733523 16.307692
60.843845 13.412376 5.0809755 15.5
63.369835 13.598201 5.0752935 15
63.400845 13.525503 5.0739574 14
-23.483263 13.737937 5.0271769 12
-21.784122 13.698336 5.0229845 2
13.703441 13.710011 5.1162539 0
18.310518 13.636996 5.1078849 0
18.503922 13.615845 5.1143012 0
18.709543 13.649317 5.1113982 0.22727273
18.870653 13.702247 5.0802517 0
19.106276 13.751022 5.0752287 2.9000001
19.245375 13.780621 5.1253219 0
60.362579 13.685284 5.0775981 6.3333335
60.429985 13.644264 5.1617203 21.25
60.660965 13.64705 5.0699563 13
60.847206 13.705355 5.1612787 15
62.963139 13.787218 5.0434537 17
-23.429558 13.893431 5.1316662 8
-21.681702 13.805546 5.0174589 6
-21.589676 13.864421 5.0106478 7
-21.322399 13.947995 5.0616498 18
-6.23071 13.805322 5.1858549 10
-6.0082855 13.993062 5.070437 1
-5.9033871 13.893862 5.0536509 11
13.576663 13.997827 5.1596107 0
13.649199 13.887177 5.0823436 0
18.787254 13.837467 5.1687441 0
18.889145 13.889698 5.1765122 0
19.098204 13.870853 5.1481457 0
19.302746 13.835144 5.1320395 0
19.48148 13.879246 5.1179976 0.125
19.69442 13.939194 5.1523709 0
61.5359 13.806477 5.0003452 17
62.92305 13.853045 5.0435243 17
-21.243 14.070314 5.0593066 16.5
-21.176334 14.19912 5.0587139 15
-7.062151 14.083639 5.0916557 10
-6.9270344 14.130088 5.0457764 11
-6.6166115 14.067636 5.1169667 4
-6.2517643 14.141422 5.0457993 14
-6.1573162 14.143456 5.0240316 12
13.571158 14.132929 5.1125059 0
13.622555 14.044979 5.1262908 0
19.769569 14.027388 5.1306195 0
19.907106 14.033522 5.1332622 3
20.104006 14.097047 5.0947046 0.71428573
20.285374 14.140627 5.1323266 1.1
20.482454 14.16389 5.0531807 4.4285712
22.130444 14.164874 5.0511475 2
22.259064 14.16946 5.0771027 5
22.430145 14.179749 5.0087605 0
61.498516 14.07226 5.0783672 14
-24.000103 14.299992 5.0559282 5
-21.144716 14.291739 5.0600667 13
-7.4662895 14.316218 5.1771393 15
-7.0385513 14.205155 5.0172901 15
-6.8962879 14.29486 5.0067344 14
-6.7804222 14.28193 5.1818962 1
-6.2646255 14.346146 5.0069842 15.666667
-6.0970216 14.2882 5.0527706 18.75
13.514253 14.30138 5.0965538 0
20.277349 14.214941 5.1095247 0
20.526941 14.224014 5.0782833 3.5
20.711037 14.267935 5.0934644 2.2
20.889009 14.328561 5.1098685 0.3125
21.086563 14.377807 5.041604 5
21.35705 14.393936 5.0765891 0.2
21.500538 14.360565 5.1099396 10.333333
22.097271 14.279813 5.0805335 5.4000001
22.323444 14.241472 5.0947213 10
22.495937 14.284924 5.0901785 3
22.681238 14.335514 5.1038327 4.1666665
22.869513 14.380984 5.0698638 5
23.112347 14.379021 5.1237116 0
61.468346 14.381608 5.1314793 14
61.707745 14.323749 5.0897956 15
61.821159 14.338119 5.1163564 15
63.115814 14.359766 5.0523176 14
-21.239246 14.554224 5.046648 11
-6.8316975 14.519738 5.1912799 1
-6.1401253 14.510224 5.0924444 10
-3.9429734 14.564505 5.1106467 7.5
13.438886 14.503173 5.1062288 0
21.113531 14.427103 5.095861 1.6
21.290594 14.47523 5.0925713 0.9375
21.510868 14.41979 5.1113691 36.692307
21.704893 14.486995 5.1063075 20.892857
21.895424 14.540463 5.1154943 18.08
22.030319 14.49826 5.0981641 14.166667
22.788931 14.436865 5.0275297 0
22.947834 14.418631 5.0516143 5.8000002
23.108282 14.480409 5.0750451 3.4666667
23.293053 14.536082 5.0893316 3.6666667
23.455513 14.569972 5.0887675 2.4117646
23.638105 14.550791 5.1604624 0
61.346176 14.554115 5.0932641 13
61.488136 14.450141 5.0964689 13.5
61.636406 14.443942 5.0545111 16
-21.155441 14.699335 5.0382514 11
-6.9513741 14.690669 5.1576414 2
-6.1478133 14.712787 5.1617355 11.75
-3.8852232 14.673231 5.1164417 11.625
-3.7783573 14.697764 5.1111379 14.666667
13.372925 14.734831 5.1139221 0
13.427999 14.669642 5.1416392 0
23.374687 14.605854 5.0510159 5
23.533779 14.625205 5.0920472 3
23.702181 14.669716 5.0931888 1.8421053
23.90093 14.741193 5.1053705 3
24.085312 14.76261 5.0963397 2.4117646
24.245922 14.781562 5.0950103 1
61.429062 14.732569 5.1659269 11
61.893494 14.763143 5.1402192 16.5
62.233292 14.680505 5.0273838 15
-21.070904 14.808618 5.0790482 10
-6.9627228 14.912322 5.1643538 6
-4.6537504 14.91492 5.0926414 13.8
-4.5426302 14.887366 5.0708122 14.857142
-4.3792057 14.884315 5.0357146 17
-3.8415604 14.823796 5.106945 5
13.315599 14.873665 5.146863 0
24.122984 14.825225 5.0991092 1.6363636
24.299206 14.863811 5.1070538 2.4186046
24.494144 14.926479 5.1103001 1.0731708
24.692245 14.975683 5.1091747 0
61.65377 14.91624 5.1564231 14.5
61.939617 14.946236 5.1281991 15.833333
62.065857 14.847013 5.0218501 15
62.257893 14.851123 5.0422177 14
63.340992 14.971907 5.0090551 16
-7.0272765 15.068386 5.16717 10.333333
-5.6217136 15.071915 5.0342622 17
-5.4803596 15.061566 5.0902605 16
-4.6270471 15.02389 5.1390805 9.5
13.159788 15.115077 5.0028415 0
13.28254 15.113285 5.1072226 0
24.55559 15.014812 5.0668988 0.25
24.72331 15.021088 5.1103854 0
24.899921 15.047544 5.1133304 0.46153846
25.097624 15.103574 5.1007981 1.8536586
25.288347 15.162676 5.0960164 5.9375
25.455446 15.18946 5.105206 0
61.90464 15.089405 5.0478883 52
63.151634 15.107488 5.041759 11
63.208458 15.012747 5.0432568 16
-7.8722944 15.308817 5.0884304 7.5
-7.7966328 15.202949 5.0396562 11
-7.2451687 15.333796 5.1067877 5
-7.0582733 15.239753 5.18016 3
-6.874588 15.215246 5.1892958 13
-4.6648769 15.354686 5.0533657 3
13.172934 15.333281 5.0917459 0
13.228848 15.295283 5.07162 0
25.163834 15.258286 5.0673976 0
25.310551 15.229046 5.1117454 1.7142857
25.515114 15.242445 5.1106606 2.7096775
25.701199 15.293558 5.1050386 1.3076923
25.89666 15.350515 5.1071515 1.3448275
26.059313 15.37946 5.0795054 0.83333331
26.211514 15.398215 5.1158152 0
61.867386 15.378482 5.0404034 0
62.096222 15.297948 5.16921 51.25
62.202087 15.31501 5.1575174 11
63.030674 15.280527 5.0523257 14.5
-7.9369183 15.528104 5.1740484 7
-7.7179289 15.460979 5.0816488 4.5
-7.2480288 15.494718 5.1000199 2.5999999
-7.1678891 15.48101 5.1951084 4.3333335
-6.0362396 15.509452 5.1172118 9
-4.7068806 15.491645 5.0641422 1
-2.6212673 15.579037 5.0243554 11
-2.4532452 15.550662 5.0450931 14
-2.2945011 15.537646 5.0734525 40.285713
-2.1563683 15.582991 5.0787601 31
13.110256 15.473373 5.0990314 0
26.113695 15.441838 5.0606174 5.8888888
26.296547 15.502046 5.083353 1.6363636
26.498768 15.538733 5.094007 0.94117647
26.710516 15.56719 5.1141734 0
26.912786 15.573792 5.0666738 0
61.91103 15.517625 5.1629438 0.5
62.067421 15.471245 5.1652451 29
-7.2120667 15.621526 5.1315117 1
-7.1220932 15.713355 5.197896 1
-6.0056362 15.682047 5.1298594 5
-4.8733282 15.709125 5.1807337 9
-2.6532841 15.670008 5.1118445 14.5
-2.554961 15.636442 5.0931892 15
-2.0571229 15.655513 5.0883303 60.444443
-1.956677 15.743652 5.1030655 50.666668
13.067058 15.636429 5.0664539 0
26.704626 15.629045 5.0931263 2.7272727
26.901499 15.686502 5.1022434 1.7777778
27.091732 15.731099 5.0926709 2.3846154
27.276764 15.759064 5.0895629 1.6666666
27.446487 15.754969 5.0369511 0
61.917385 15.654605 5.1612825 0
-22.794659 15.945342 5.0198231 14
-8.4023018 15.910296 5.1100225 9
-8.3347626 15.987447 5.107337 8
-7.2878151 15.897392 5.1447535 13
-6.1362419 15.900545 5.1320229 1
-1.907109 15.903894 5.1130319 50.909092
12.947782 15.915276 5.1257033 0
13.008285 15.868999 5.0958748 0
27.328514 15.824096 5.0896187 4.2727275
27.512585 15.874363 5.0775461 3.2777777
27.691605 15.920313 5.0770502 5.6500001
27.880972 15.962271 5.0806403 4.3125
-22.761219 16.03701 5.0217094 13
-8.0710373 16.181807 5.0916853 12
-7.4616699 16.149933 5.1888218 13
-7.3548851 16.159618 5.1775084 13
-6.5843115 16.124729 5.0729804 8.5
-1.8840195 16.103817 5.1564751 33.599998
-1.7553558 16.054056 5.0453329 76
27.953091 16.018717 5.091373 11.571428
28.107069 16.052393 5.0641398 5.8421054
28.296682 16.119656 5.080142 7.1052632
28.477304 16.160984 5.092639 5.3076925
28.642944 16.198812 5.0463095 0
-7.4266586 16.376013 5.039494 6
-6.8528624 16.275557 5.0184832 18
-6.7440934 16.364231 5.1508665 27
-6.5437508 16.218412 5.102231 11
-5.4691668 16.313803 5.1189823 17
-1.8805065 16.206919 5.0099196 11
12.820017 16.382116 5.0490017 0
28.39327 16.203882 5.1862302 0
28.547499 16.224569 5.099309 7.5714288
28.706076 16.264004 5.0779142 7.7647057
28.895359 16.342546 5.0752625 7.6666665
29.056154 16.385496 5.0556974 7
-23.227913 16.564127 5.1003056 14
-6.9412928 16.538029 5.0690603 18
-6.6855874 16.459782 5.0827503 23.799999
-6.5664544 16.49382 5.1295004 18.75
-6.3302727 16.526241 5.1622639 15
-5.970293 16.400703 5.185133 17
12.796094 16.578779 5.0781841 0
12.823999 16.519821 5.1283951 0
28.240273 16.495884 5.1377864 0
28.945068 16.417458 5.19805 0
29.143751 16.416103 5.0872984 6
29.302605 16.451946 5.0579062 6.9615383
29.495981 16.507668 5.0572615 5.9200001
29.663534 16.562582 5.0645714 4.5714288
29.842386 16.58544 5.1575427 0
-23.322329 16.680777 5.0876179 15.666667
-23.177521 16.763826 5.1069889 15
-6.9300222 16.756834 5.1029172 17
-6.6333284 16.680456 5.0619316 18
-6.5120049 16.707521 5.1674361 17
-6.2839947 16.736652 5.1005902 16.25
-6.1047263 16.732634 5.082726 16
-5.9758444 16.675997 5.0785961 14
12.778695 16.676409 5.0866461 0
28.260216 16.727406 5.1769366 0
29.745611 16.614252 5.0532212 4.9000001
29.899813 16.664314 5.0737791 5.7567568
30.10121 16.72938 5.0778775 4.2127662
30.294874 16.776474 5.0925035 4.0512819
30.433674 16.797392 5.0917196 0
-23.500959 16.930508 5.0517864 16
-6.7483253 16.901781 5.0449977 17
-6.2590113 16.92503 5.0082998 27
-6.004384 16.864237 5.1558146 16
-5.9612541 16.910582 5.0981064 15
-5.7874241 16.971388 5.1316729 10
-5.4969807 16.862186 5.0990028 11.5
12.405362 16.998011 5.1082077 19
12.639828 16.968266 5.0952086 16.5
12.80982 16.837936 5.1213136 0
30.367859 16.80633 5.0551176 3.2
30.519402 16.863811 5.0706005 4.6333332
30.708658 16.927088 5.0928059 1.7555555
30.894238 16.969704 5.0876851 1.5434783
31.084036 16.972303 5.1476274 0
31.243624 16.996502 5.1831574 0
-23.667788 17.168013 5.1390343 16
-6.8679085 17.069792 5.0293708 18.333334
-6.689105 17.114527 5.0485439 24.666666
-6.5352464 17.056772 5.0009565 35
-6.2387819 17.01145 5.0212398 18
-6.0971003 17.128527 5.029263 16.5
-5.9089818 17.066696 5.0882688 15.285714
-5.499342 17.083321 5.1096592 6.5
12.333087 17.064831 5.0774384 22
12.515656 17.025404 5.087306 17.4
30.370518 17.090752 5.0563588 0
30.625235 17.029524 5.0649757 0
30.932896 17.003237 5.1347995 0
31.099752 17.048128 5.0907168 1.5
31.292818 17.113918 5.1167908 0.85294116
31.490318 17.161921 5.1203146 0.93333334
31.627619 17.192617 5.1005645 0.66666669
-23.819572 17.387358 5.1684451 15
-6.7158585 17.282471 5.0292625 23.5
-6.2794223 17.205057 5.0076199 18
-5.9432278 17.222544 5.0326271 16
-5.612834 17.298733 5.0709028 15
-5.5458584 17.34063 5.1228333 34.75
-5.36625 17.350899 5.0074444 20.5
-3.417347 17.20187 5.1973248 3
-3.2541969 17.309597 5.0896254 3
-3.1806717 17.308002 5.0138264 11
12.353831 17.335922 5.1305914 17
31.335127 17.237572 5.1140499 0
31.513775 17.236645 5.1369147 0
31.724422 17.260649 5.1203113 0.32142857
31.903673 17.334181 5.141119 0.055555556
32.090633 17.360872 5.1361895 0.11111111
32.263996 17.377508 5.1267424 0
32.575581 17.315664 5.0252361 0
-23.825336 17.502058 5.1231079 14.5
-23.751591 17.567669 5.1202555 15.5
-23.46814 17.527987 5.0456486 17
-23.102287 17.570158 5.0083723 17
-6.7930527 17.507284 5.0427456 13
-5.6706824 17.49942 5.014924 17
-5.499332 17.49021 5.0980148 16.5
-5.3822699 17.521505 5.0888667 18
-3.7238951 17.537392 5.1538239 27.5
-3.2891235 17.445993 5.1959176 1
-3.1626015 17.497492 5.0712919 5.8000002
12.355208 17.511351 5.1407743 17
31.903852 17.425493 5.1314292 0
32.30862 17.437637 5.1421118 0
32.4967 17.477865 5.1417289 0
32.69883 17.532938 5.1335545 0
32.866848 17.575905 5.1285233 0
33.022419 17.580935 5.1061912 0
-23.68647 17.637779 5.1185246 16.5
-23.513905 17.67811 5.1061735 16.5
-23.20554 17.667894 5.1245022 16
-23.149866 17.747137 5.1241293 16
-22.965767 17.62837 5.003511 16
-22.225571 17.716076 5.0702896 12
-6.2014351 17.649761 5.1997185 13
-6.0519147 17.707479 5.1855345 46.5
-5.6546493 17.605661 5.0756216 36
-5.2723513 17.649073 5.0449576 29
-5.1946931 17.672453 5.0165625 18
-3.0784111 17.600393 5.0085144 1
4.5158024 17.788172 5.1131968 0
12.29041 17.700558 5.1037736 17
32.947014 17.620012 5.1531301 0
33.101974 17.66678 5.117579 0
33.284004 17.719805 5.1018281 0
33.458847 17.764805 5.0842047 0
33.607311 17.795809 5.0889378 0
-23.402283 17.867861 5.1967936 16
-23.231033 17.872637 5.1799879 14
-23.093529 17.890448 5.1411462 15.333333
-22.921452 17.921152 5.1325693 14.5
-22.693756 17.924212 5.1036344 13.666667
-22.334005 17.987082 5.0590658 12
-22.097439 17.885395 5.1419816 11.4
-20.224796 17.882023 5.007226 11
-5.9780197 17.818096 5.194066 68
-5.6178112 17.856377 5.0901456 17.333334
-5.5686908 17.94482 5.1278892 22.5
4.5569229 17.876797 5.1157336 11.714286
4.6625776 17.953701 5.1131883 37.5
4.8331871 17.992144 5.1213694 31
12.223016 17.90238 5.110724 17
33.549656 17.807119 5.1080103 0
33.703575 17.851017 5.0639453 0
33.926617 17.915012 5.0529504 0
34.102924 17.961147 5.0545311 0.30000001
-22.280296 18.121906 5.0629973 11.5
-21.945045 18.036974 5.1857271 9
-4.063179 18.069443 5.1956921 1
4.5077558 18.075603 5.0603595 16
4.7307587 18.027782 5.0925083 34.200001
4.8953934 18.073917 5.1083279 39.466667
5.0898252 18.136095 5.1211872 38
5.2175937 18.167194 5.1473494 20
12.164105 18.086449 5.1003237 17
34.161232 18.009193 5.002409 4
34.314598 18.052402 5.0518255 1.8
34.513336 18.080923 5.0643167 0.77777779
34.712021 18.157463 5.0519433 1.5
34.805241 18.162361 5.0077496 3
-6.1005788 18.200487 5.1712599 18
-5.3214388 18.357882 5.0251899 16
4.3727412 18.368652 5.0472989 6.6666665
4.4314575 18.247768 5.089273 16
5.1770287 18.262589 5.1328125 13.6
12.096397 18.276495 5.09022 16.666666
34.907047 18.238676 5.1013241 1.8181819
35.084904 18.288767 5.0828414 2.2727273
35.30154 18.350641 5.1067266 2.2222223
35.493118 18.373753 5.0368257 8.666667
35.763737 18.392862 5.0125527 0
-5.2635813 18.406464 5.0251155 17
-5.0988784 18.478241 5.0811934 14.8
-4.9074473 18.492889 5.1243043 9.333333
-4.7344589 18.530128 5.1537681 1
4.2995272 18.475538 5.1032419 1.25
5.115994 18.488449 5.0978918 12
11.98992 18.568523 5.0966792 16.5
12.038839 18.444653 5.116375 16.25
35.35442 18.449963 5.09517 0
35.518639 18.463261 5.139874 0
35.722321 18.480383 5.1122227 2.7272727
35.893337 18.525625 5.1040454 2.3571429
36.090038 18.548443 5.0296912 8.8000002
-4.8150787 18.668379 5.0723391 3.3333333
5.072907 18.693369 5.102077 9.1999998
11.945577 18.696047 5.0798416 16.25
35.756805 18.789854 5.1222296 0
36.106903 18.642212 5.1554542 0
36.328274 18.645378 5.0931759 3.3636363
36.502396 18.691216 5.0793443 5.625
36.687164 18.752346 5.0691719 8.1999998
36.858334 18.782661 5.0155125 13
-23.649878 18.989216 5.1665106 16
-4.73843 18.834829 5.1273251 6
5.0963717 18.824202 5.0618424 5.5
11.885774 18.880554 5.0757618 15.7
35.829826 18.851673 5.189496 0
36.762497 18.80521 5.1450272 0
36.928314 18.838223 5.080533 1.8571428
37.10083 18.877462 5.0621386 5.1999998
37.289116 18.958956 5.0703611 6.1428571
37.498573 18.986088 5.0805421 3.75
-23.534508 19.016705 5.1574774 14
11.789329 19.163755 5.0717654 15.25
11.828244 19.053616 5.0533018 14.714286
37.369682 19.120691 5.1147313 0.25
37.488632 19.051384 5.0972056 3.3846154
37.702454 19.100176 5.0840716 7.4444447
37.891815 19.146826 5.0625176 7.2222223
38.072819 19.181902 5.0141902 9.5
38.201275 19.198824 5.0163102 0
11.745928 19.298628 5.1012635 15.1
37.33728 19.370419 5.0984211 0
38.117252 19.230209 5.1013217 5.5
38.307671 19.282787 5.1141748 6.1111112
38.510448 19.341663 5.0761709 6.7333331
38.666168 19.366341 5.0459461 7.5555553
38.859825 19.393726 5.0213566 0
11.677169 19.51059 5.1271844 15.285714
38.589844 19.416826 5.1315713 8
38.734867 19.438528 5.131947 6.5
38.896053 19.459049 5.0503182 11.428572
39.098026 19.522444 5.0650029 8.833333
39.287086 19.57019 5.0362687 8.666667
39.415466 19.585489 5.002315 7
11.575475 19.74419 5.1913099 17
11.626643 19.694529 5.1452169 14.714286
39.325584 19.61701 5.1341524 3.8
39.494038 19.639864 5.063992 6.3333335
39.700024 19.699291 5.07441 6.0370369
39.910263 19.762587 5.0410528 8.4705887
40.031761 19.793928 5.0180845 7.4000001
-8.2820816 19.893314 5.0319567 15.5
11.566003 19.88763 5.1826277 15
39.935352 19.842791 5.1645498 1.6
40.125443 19.841896 5.0609794 7.04
40.302429 19.893044 5.0575724 6.3333335
40.488102 19.949635 5.0551763 5.90625
40.628639 19.986305 5.0522451 8
11.489785 20.12705 5.1378398 15
40.537815 20.040371 5.1596055 1.25
40.713291 20.034472 5.0882778 4.65625
40.902279 20.075047 5.0753808 5.4857144
41.101604 20.140945 5.0752149 5.483871
41.253403 20.18092 5.0744514 6.875
11.419129 20.336292 5.1379423 15
41.175583 20.231091 5.1020355 2
41.321785 20.239164 5.0972691 4.4444447
41.500854 20.286585 5.1076164 4.25
41.696373 20.338903 5.1163344 4.3783784
41.859814 20.373941 5.0899644 5.2352943
-9.5633421 20.489973 5.0253096 15
11.359861 20.527636 5.1598434 15
41.924339 20.417791 5.1362877 3.05
42.096832 20.461266 5.1139064 3.1052632
42.296391 20.524242 5.1138334 2.8571429
42.461903 20.569038 5.1137743 3.1111112
-21.498478 20.795496 5.1828175 11
11.296856 20.720007 5.1817446 15
42.387688 20.603924 5.1564865 0
42.529713 20.62668 5.1416807 2
42.698551 20.664915 5.1392317 2.1363637
42.887493 20.728085 5.15065 2.1428571
43.053623 20.769577 5.148283 2.5
43.210083 20.799488 5.1371331 8
-5.6551533 20.972828 5.1636968 13
11.250702 20.868649 5.1989517 14
43.102535 20.833445 5.1805706 0.625
43.286175 20.861076 5.1525574 1.0769231
43.49234 20.892822 5.1472201 1.5
43.696983 20.95792 5.1657729 1.8
43.853508 20.983486 5.0514021 0
-9.1509495 21.145161 5.0009651 11
-6.4312038 21.116697 5.1479216 1
-6.3884907 21.174459 5.1563396 13
-5.9044266 21.08724 5.1926455 9
-5.7349415 21.138851 5.1605539 10.75
11.166112 21.144714 5.1072493 14
11.230292 21.023335 5.0947342 14
43.916924 21.038511 5.166739 2.1428571
44.14164 21.113905 5.1317582 1.2
44.296093 21.140921 5.0833683 0.25
44.444752 21.171373 5.060894 0
-8.9023685 21.291214 5.1444917 1
-6.3078375 21.221424 5.1484098 7.5
-6.1174822 21.292309 5.1374679 9
-5.920084 21.292257 5.1201763 8
-5.7323861 21.318819 5.15025 10.833333
11.120161 21.306141 5.1267309 14
44.568039 21.207542 5.0863991 0
44.679596 21.240761 5.0595298 0
44.891678 21.307341 5.0799756 0
45.089996 21.370325 5.1053843 0
-6.0551462 21.478773 5.1951804 16
-5.6891236 21.452536 5.1409116 12.333333
-5.5380177 21.5392 5.1079421 12.666667
9.343153 21.529858 5.034605 5.1999998
11.069626 21.460896 5.1450481 14
45.479942 21.503233 5.0124688 0
45.693707 21.564186 5.025351 0
45.853424 21.596115 5.0216074 0
-7.0873637 21.773865 5.0706758 16
-6.928299 21.730455 5.0808096 7
-6.3232021 21.772141 5.0336647 16.5
-5.4809151 21.68075 5.1529593 12.166667
-5.3951015 21.743332 5.1033649 7
9.1981573 21.665783 5.0566578 13
9.2610044 21.626141 5.0544977 14
10.984914 21.723291 5.1763487 14
11.020074 21.620129 5.1641388 14
45.924911 21.634619 5.0451727 0
46.103142 21.694021 5.0528436 0
46.286575 21.74902 5.0650482 0
46.411514 21.790066 5.0354443 0
-20.034231 21.940287 5.0881052 15
-19.969046 21.999632 5.0881052 14
-7.6722603 21.919767 5.0950894 1
-7.4438105 21.989305 5.1395731 17
-6.8435287 21.85677 5.0828614 10.5
-6.5999947 21.831791 5.0608516 17
-6.2195148 21.870012 5.0164008 10
-6.0891457 21.888424 5.0230188 13
-5.431797 21.860546 5.1955109 12
-5.3935394 21.897442 5.11656 9.5
10.951233 21.830952 5.1893311 14
45.732674 21.929935 5.0005198 0
46.399956 21.803087 5.11309 0
46.52177 21.831659 5.0897107 0
46.6945 21.882322 5.1008172 0
46.863232 21.937986 5.126533 0
47.033752 21.988348 5.0852318 0
-19.87011 22.098995 5.0890179 13
-19.767424 22.194265 5.0893221 13
-7.6410522 22.109865 5.167696 4
-7.5571575 22.07412 5.0989637 1
-5.4095173 22.063379 5.1178613 4
-5.3781066 22.057322 5.1565852 11.666667
9.1087494 22.057325 5.1087494 12
9.2899704 22.036655 5.0646682 0
47.159344 22.028929 5.098794 0
47.291256 22.076485 5.0804567 0
47.476212 22.135029 5.1002131 0
47.652229 22.178066 5.1177797 0
-19.697598 22.25626 5.0893221 11
-9.3061247 22.344378 5.1253672 2.5
-5.3739619 22.279755 5.1329427 4
10.776197 22.357533 5.0612893 13.5
10.836988 22.243444 5.1101079 14
46.591377 22.319534 5.0050373 8
46.728302 22.312138 5.0138836 2.5
46.806423 22.212082 5.0091558 0
47.783943 22.227911 5.0816574 0
47.907276 22.267406 5.094779 0
48.080841 22.340052 5.064127 0
48.280396 22.383484 5.0660639 0
-9.2413759 22.45344 5.1257982 3
10.704411 22.504574 5.079246 13.75
47.964905 22.421518 5.0130916 0
48.502426 22.477465 5.0643511 0
48.689381 22.521492 5.0634437 0
48.872173 22.569456 5.0684252 0
-4.5075016 22.698536 5.0677204 27
-4.2602725 22.757143 5.1420431 1.3333334
8.977808 22.797653 5.0935621 6
10.644773 22.727182 5.128675 14
47.508732 22.625986 5.0017605 12
47.708923 22.680243 5.0129089 11.666667
47.916893 22.731947 5.028357 9.25
48.06192 22.73786 5.0389724 6
48.529655 22.777908 5.0430813 0
48.956257 22.600046 5.0340123 0
49.119263 22.668467 5.0635757 0
49.309231 22.713528 5.0855246 0
49.497635 22.769739 5.1019893 0.5
-19.319231 22.830732 5.179882 5
-4.2424178 22.88262 5.1418319 22.333334
-4.1695099 22.962721 5.1513286 49.200001
8.7986822 22.985252 5.1130347 8
8.8907118 22.898699 5.1044378 8
10.584014 22.937027 5.0509596 14
10.602976 22.894476 5.1899967 14
48.175205 22.840452 5.0077834 14
48.29707 22.856609 5.0358152 9.75
48.491161 22.904345 5.0364776 7.5
48.605568 22.970833 5.0175486 15
49.689758 22.835085 5.1359739 0.2857143
49.884399 22.890184 5.1346402 0.66666669
50.036732 22.921106 5.1432829 0.66666669
-18.089369 23.168797 5.1066756 0
-4.0933671 23.068493 5.1701617 23.142857
8.8987427 23.178741 5.0826368 3
10.544291 23.107277 5.0749168 15
48.709946 23.004103 5.0274935 14
48.862038 23.057112 5.025496 14
49.082439 23.089384 5.0454216 10
49.213058 23.176102 5.0403137 15
50.747356 23.170914 5.1662803 2.6666667
50.831696 23.135153 5.1568408 4
-4.119854 23.226908 5.195859 14
8.7739305 23.301359 5.0957236 6
8.8337688 23.325706 5.1060209 4.5
10.49439 23.310982 5.0906663 15.5
49.31488 23.206757 5.0492101 15
49.472298 23.260956 5.0637894 15
49.686047 23.332333 5.0834446 15
49.847183 23.3834 5.0980377 15
50.39621 23.222996 5.1684933 0
50.565445 23.32996 5.0147543 0
50.655655 23.283623 5.1278672 3.25
50.874802 23.21282 5.1122971 4
51.029167 23.215176 5.0464921 0
51.379421 23.318672 5.0783916 0
51.409004 23.397316 5.0879502 0
51.656395 23.388268 5.1048398 0
8.6982069 23.518721 5.1012049 2.7777777
8.8051691 23.548264 5.0481491 0
10.368207 23.571541 5.0783753 10.666667
10.434304 23.453186 5.0716567 13.6
49.970169 23.429249 5.0553389 15
50.125805 23.480217 5.057652 15.2
50.301579 23.525751 5.05299 11.142858
50.485088 23.531109 5.089663 10.2
51.130432 23.519424 5.0714483 0
51.298378 23.478592 5.0826402 0
52.05394 23.52211 5.1419659 0
8.581233 23.643623 5.102459 1.6666666
8.6568747 23.630011 5.0800643 1.1666666
10.334778 23.704226 5.067853 12.8
50.515343 23.610533 5.0481281 16
50.667824 23.659073 5.0710974 14
50.88649 23.731207 5.0732422 14.25
51.040371 23.749634 5.0717854 9.6000004
51.943516 23.76446 5.1230769 0.66666669
52.096626 23.689123 5.1226568 0.14285715
52.296944 23.69652 5.1391621 3.5
52.524483 23.756523 5.1687727 3.625
-18.858965 23.827974 5.0124354 13
-8.0453014 23.966347 5.1324377 8
-7.9862871 23.998545 5.1694584 9
10.276187 23.868467 5.0883622 10.666667
51.133892 23.820112 5.0661831 16
51.307011 23.869787 5.0871992 15.666667
51.518482 23.924883 5.1074252 14.625
51.704632 23.922344 5.1293054 9.7142859
51.854767 23.837427 5.1242399 3.8
52.109966 23.962021 5.1730437 7.6666665
52.297157 23.867468 5.174088 1
52.50111 23.896538 5.0628581 0
52.708698 23.845461 5.1184812 4
52.906189 23.928341 5.1277299 3.5999999
53.082306 23.977798 5.171793 6.3333335
53.215473 23.99711 5.0598078 0
-7.9254789 24.085196 5.1395907 8.3999996
-7.0703869 24.179878 5.1609535 0
10.149864 24.137733 5.1277256 3
10.222693 24.041616 5.0852013 9.25
51.701324 24.017097 5.0440998 16.5
51.897984 24.060249 5.096108 14.833333
52.087063 24.141293 5.0768576 15.75
52.271454 24.176565 5.0612221 10.333333
52.48859 24.136654 5.0756531 5
52.674072 24.121452 5.143858 5
52.818199 24.038162 5.142437 0
53.176853 24.028629 5.1611252 4
53.309357 24.071638 5.1842523 6.3333335
53.510227 24.129072 5.1405621 3.5
53.637451 24.174967 5.1132936 0
-7.8606439 24.26417 5.1140561 8.333333
-7.0788527 24.222248 5.0661135 0.5
-6.98493 24.326244 5.0712271 0
8.4421844 24.323948 5.1420298 1.5
10.111667 24.30135 5.1294889 5.8000002
52.34264 24.220028 5.0539422 11.25
52.498974 24.292543 5.0402718 15.666667
52.671616 24.365133 5.0440431 16
53.298157 24.325314 5.0927606 0
53.484924 24.223188 5.1032963 0
53.915344 24.309843 5.1122904 0
54.099789 24.298407 5.142231 0
54.255024 24.389685 5.120194 0
-7.7803459 24.425694 5.1074915 9
-7.5893974 24.411964 5.1020164 6
8.3942518 24.582636 5.1513853 0
8.476759 24.514103 5.1406856 0
10.036563 24.523693 5.1526241 5.5
52.775627 24.406853 5.0354404 16
52.89735 24.445494 5.0482755 13.181818
53.090786 24.510748 5.0682836 12.363636
53.261784 24.5567 5.0585275 6.8571429
53.507835 24.587006 5.0727305 0
53.686066 24.504898 5.0866466 0
53.894398 24.492165 5.0846667 0
54.116051 24.47732 5.1343431 0
54.261803 24.479969 5.1370363 0
54.442909 24.446257 5.1399736 0
54.675583 24.561884 5.1598134 0
8.3559437 24.793076 5.1684003 1
53.321125 24.625811 5.0906863 15.857142
53.514416 24.67993 5.1001277 13.083333
53.701134 24.718401 5.1169963 11.307693
53.890575 24.687056 5.1521282 2.3333333
54.03096 24.600945 5.1899037 0
54.864697 24.702213 5.1471047 0
55.101551 24.740376 5.1782341 0
2.33428 24.955465 5.1061687 0.5
9.9409466 24.892895 5.1966743 5
53.78566 24.814627 5.1258755 16
53.915741 24.852926 5.1132879 14.625
54.092464 24.936575 5.1459384 16
54.243038 24.957729 5.0883498 5.5
54.688042 24.852549 5.1488438 0
55.132935 24.974943 5.1149073 0
55.278122 24.948416 5.1239443 0
55.468849 24.91814 5.1650867 0
2.4974167 25.109991 5.0379882 82.333336
2.627079 25.162624 5.1036167 88
8.284627 25.151501 5.1758342 0
54.302979 25.031422 5.163177 16
54.508095 25.089811 5.1383777 10.636364
54.675617 25.176073 5.1428738 11.333333
54.904144 25.157753 5.1086922 0
55.064861 25.071548 5.1154089 0
55.260281 25.109554 5.0882792 0
55.516785 25.043097 5.102972 0
55.772835 25.076036 5.1670284 0
55.871784 25.148758 5.1350756 0
-16.281258 25.237854 5.0965586 15
2.7094326 25.220751 5.1029768 50
2.8102188 25.255024 5.0991259 45
8.1215925 25.264067 5.1927309 0
8.2019472 25.242512 5.1894131 0
54.721668 25.218136 5.187571 16
54.918854 25.259333 5.1056037 5.3333335
55.149734 25.239101 5.0879936 0
55.227875 25.380859 5.0690994 0
55.894947 25.37886 5.1161947 0
56.136303 25.320341 5.1415811 0
55.524193 25.503241 5.0970259 0
55.75198 25.567104 5.116786 0
55.843567 25.491858 5.1189771 0
56.47493 25.415461 5.1772857 0
56.832336 25.589434 5.1951199 0
55.855267 25.702868 5.0095263 1
56.016678 25.748659 5.0144858 2
56.156025 25.847494 5.0386343 0
56.253677 25.874937 5.0241508 2.5
56.507401 26.031176 5.0552664 1
56.604561 26.0424 5.0724988 0
56.838535 26.183487 5.0904803 0.33333334
57.141064 26.334906 5.1203504 0.33333334
57.219482 26.395094 5.0052066 2
57.582108 26.393246 5.1608782 0
57.342964 26.431538 5.1189957 0
57.503021 26.462603 5.1138649 0.16666667
-6.6219616 27.579687 5.1077528 1
9.1236248 27.555012 5.0041351 9
-7.2570515 27.612989 5.1481752 1
-7.1435261 27.689585 5.1454754 1
-6.4939251 27.640736 5.1034203 1
-8.8521137 27.991816 5.1857305 5
-8.7233362 28.084085 5.1698222 10.666667
-8.5767059 28.171255 5.1629171 11
-8.4532337 28.2542 5.1866474 5
-8.1776142 28.335241 5.1644607 0
-6.1479392 28.37409 5.0215497 15.5
-5.9706736 28.398184 5.0592985 16
-7.240633 28.597744 5.1255422 11
-6.8423738 28.514872 5.1379237 9.25
-6.6874003 28.543859 5.1239672 7.5
-6.5019889 28.513845 5.1167417 11.833333
-6.3085189 28.478025 5.0866146 38.375
-6.0918908 28.439285 5.0821738 34.333332
-5.9476571 28.463036 5.0809216 13.666667
-7.1531448 28.653463 5.1260214 8
-6.5575161 28.644867 5.0924258 97
-7.0493631 28.853031 5.0025158 14
8.6911488 28.950764 5.1513872 14
-8.7478409 29.182449 5.0333986 1
-8.6226044 29.253225 5.0297709 1
-8.511919 29.337002 5.0276866 1
8.5733471 29.223856 5.1793771 16
8.5678015 29.466188 5.0987325 8
61.266754 29.532135 5.0436468 0
8.4762897 29.691601 5.1220803 4.5
62.909019 29.693411 5.0557909 0
63.106281 29.721849 5.047791 0
-6.5975094 29.902563 5.1614399 19
8.3432646 29.938063 5.1104941 0
63.279991 29.845747 5.0238028 0
63.490856 29.952505 5.0158849 0
-6.4664745 30.063763 5.1634154 67.5
8.2755661 30.035627 5.0477371 0
63.739464 30.183041 5.0243182 0
-6.3635464 30.252022 5.1685538 17
63.800652 30.268353 5.0817814 0
-12.080328 30.546631 5.0159044 13
63.927677 30.449602 5.0590992 0
64.106537 30.594021 5.0928802 0
64.140923 30.638197 5.084794 0
64.303009 30.688868 5.1052012 0
64.477631 30.788181 5.1264529 0
64.338776 30.815601 5.1090927 1
64.541344 30.853079 5.1156774 0.33333334
64.689987 30.900791 5.1248236 0.5
64.781242 31.003178 5.1427131 0
64.882233 31.092337 5.1572499 1
65.121994 31.313313 5.1839771 0
71.897301 31.377783 5.0985875 4.6666665
71.723915 31.550644 5.0819726 48.799999
71.874741 31.441654 5.0544915 23
71.64917 31.721218 5.073595 68.599998
71.531349 31.953436 5.0962372 46.400002
71.668503 31.806957 5.1123343 67
-0.012090683 32.198296 5.1873517 0
0.11879373 32.124496 5.1782503 1.5
0.2794807 32.077042 5.1739087 54
0.43652105 32.020569 5.1660004 112
0.6270082 32.180088 5.182898 18
71.507164 32.158424 5.0911436 2
-0.13664055 32.250462 5.1965942 0
71.510574 32.213539 5.0789056 2.5
-8.2413082 32.780071 5.1963553 6
-8.0911694 32.934494 5.1968207 1
-7.9472332 33.095516 5.1980648 1
-7.8540821 33.217659 5.199923 0
-46.098259 65.048737 5.1992459 117
-45.890579 65.198883 5.1983242 195
-45.712311 65.388397 5.199708 232
-45.441162 65.453026 5.193965 243
-45.229309 65.597031 5.1928287 218
6.6297512 75.126991 5.0095806 3
6.8606668 75.032463 5.0058336 3
7.0957279 75.007011 5.0054159 3
7.3476219 75.014801 5.0973382 4
7.5597687 75.054466 5.0093379 1
7.8024306 75.126411 5.0136814 1
6.183506 75.38797 5.0206499 3
6.4157305 75.294823 5.0168967 3
5.7154541 75.532181 5.0262661 2
5.9486756 75.440468 5.0225062 3
5.4910231 75.827728 5.0397677 1
-11.720625 77.038872 5.0650091 1
-11.478424 77.094543 5.0653534 1
-8.5761805 77.858337 5.1403394 1
-31.433884 78.102112 5.1895876 23
-31.180771 78.232277 5.1887722 2
-30.94228 78.387573 5.189178 2
-8.8607235 80.04583 5.1270423 1
-8.6026449 80.038422 5.1251397 2
-9.2159595 80.689384 5.1582861 1
-26.36628 83.191307 5.185236 39
-26.092144 83.313278 5.185607 38
-25.82827 83.419022 5.1855655 39
-40.547676 -9.4223652 5.3965778 1
-43.377815 -9.2291956 5.3501434 6
-40.608501 -9.2927504 5.3210411 1
-39.652134 -9.3234558 5.2718625 0.5
-39.421181 -9.2600231 5.378027 0
-40.992054 -9.1061697 5.3999491 1
-39.280712 -9.0775375 5.3621316 1
-35.902946 -8.4878063 5.2851944 1
-38.253178 -8.2812576 5.2105055 1
-36.095886 -8.2750301 5.3623023 1
-35.963383 -8.323946 5.3094354 1
-38.636581 -8.0630436 5.3143325 5.5
-38.268246 -8.0413294 5.2090092 1
-36.065571 -8.102622 5.3227167 1
-38.639557 -7.9200602 5.3115549 9.5
-38.276257 -7.8141766 5.2073603 1
-39.410622 -7.6560378 5.342545 6
-39.387299 -7.7657723 5.3708076 6.5
-39.027748 -7.7290912 5.2067556 10
-38.511848 -7.7106862 5.3099442 5
-38.399746 -7.6609731 5.3803673 1
-39.431847 -7.5959697 5.3990498 3
-39.086067 -7.5996041 5.2091126 7
-38.369293 -7.4219241 5.2823529 1
-38.61348 -7.2294674 5.2671604 1
-38.323177 -7.3999739 5.3747468 1
-41.794067 -7.195354 5.3829556 2
-38.621151 -7.089685 5.2650952 1
-38.510773 -7.1225548 5.2820454 1.25
-38.335331 -7.1472535 5.3730049 2
-41.848091 -6.914856 5.3819108 1
-39.541031 -6.8341899 5.2331028 0
-38.617931 -6.9164252 5.2895927 1
-38.287796 -6.9048052 5.3212767 1.5
-38.526836 -6.7934556 5.2515407 0
-38.390266 -6.6324692 5.2370558 0
-44.569382 -6.5572739 5.3062487 1
-38.371391 -6.4899254 5.2328577 0
-37.116669 -6.5132079 5.3009524 3.6666667
-38.391491 -6.3532958 5.2320876 0
-37.126606 -6.309854 5.3023534 7.75
-37.164417 -6.1231332 5.327599 18.666666
-36.907616 -6.0513802 5.2548723 2
-37.111389 -5.9118233 5.3516107 40
-36.573479 -5.9168916 5.3598247 7.5
-36.634987 -5.7599373 5.3304634 2
-36.563168 -5.6895552 5.3444414 14
-36.647106 -5.5138812 5.2876816 2
-36.585278 -5.4890685 5.3506889 15
-36.644257 -5.2711105 5.3432684 14
-36.598392 -5.2654896 5.3252578 1
-35.244354 -5.3435698 5.2380576 11
-36.645664 -5.1286077 5.3407326 12
-36.598766 -5.0236535 5.365263 1
-35.08308 -5.1088743 5.2207193 11
-37.701847 -4.8645358 5.3119969 0.66666669
-37.788788 -4.6718898 5.2318635 1
-37.689121 -4.5945477 5.3250322 1
-36.72279 -4.5880013 5.270443 1
-37.703144 -4.3308129 5.3237453 1
-36.216183 -4.2701216 5.2728834 2.5
-35.878151 -4.3343372 5.2615867 0
-41.382664 -4.0826602 5.3477907 8
-36.157688 -4.1156554 5.2655029 3.5
-35.892944 -4.1262279 5.259325 2
-36.090759 -3.8925438 5.2563305 17.25
-39.509216 -3.6562996 5.3127646 5.5
-35.99839 -3.6739588 5.2713141 28
-35.929764 -3.5185375 5.2371454 20.5
-39.302475 -3.2213774 5.2630596 1
-35.836349 -3.3203144 5.2352939 10
-35.515862 -3.3129086 5.3051119 2
-39.290112 -3.1109889 5.296555 1
-35.511116 -3.1264293 5.271709 1
-35.50135 -2.9989126 5.3902273 0
-53.35751 -2.7218015 5.3944559 1
-53.051285 -2.5018539 5.3038397 1
-52.890945 -2.4883986 5.3801742 1
-53.078896 -2.2860444 5.2148948 1
-52.877663 -2.2617996 5.3443165 1.25
-48.526653 -2.2205787 5.325603 1
79.403839 -2.2786398 5.2814121 1
86.60231 -2.2606604 5.2675495 1
-53.020203 -2.0249238 5.2115936 1
-52.922661 -2.0780087 5.3266573 1
-48.529072 -2.0202518 5.3258977 1
79.418373 -2.069834 5.3023791 1
-52.858776 -1.9138072 5.3542032 1.5
-52.789825 -1.989078 5.2900944 1
-48.53767 -1.9688308 5.3253007 1
-52.940704 -1.7638308 5.2074614 1
-52.742443 -1.7391208 5.3330708 1
-48.446697 -1.7521801 5.3210878 1
-52.933258 -1.5786405 5.3256917 1
-48.34042 -1.495761 5.2759113 1
-47.950932 -1.4947226 5.3260612 1
-48.244244 -1.2399945 5.2711606 1
-47.940971 -1.2412845 5.3245516 1
86.510582 -1.3946035 5.3977451 1
-48.011871 -1.0173434 5.2970743 1
-48.883564 -0.9644292 5.3378854 1
-47.955128 -0.99473286 5.3382516 1
89.203621 -0.8281678 5.337913 2
-49.139858 -0.74608374 5.3613696 1
89.194901 -0.7908293 5.370862 2
-49.094624 -0.49571845 5.3585773 1
-48.900536 -0.2573967 5.3159585 1
-48.778439 -0.22566715 5.3709583 1
89.536469 -0.22126177 5.2068782 1
-48.854057 -0.11658195 5.3331742 1
89.451836 -0.081471004 5.22996 1.6666666
-48.879745 0.044198621 5.3016052 1
89.478783 0.12358877 5.2588248 2
-49.052307 0.29334593 5.2070923 1
-48.862041 0.31665304 5.3428249 1
-48.788528 0.25014392 5.3486786 1
89.525215 0.28083277 5.2842684 2.3333333
89.724434 0.31874937 5.3656216 3
89.872795 0.31659031 5.2659082 1
-49.015518 0.53689748 5.2048483 1
-48.910263 0.50181603 5.3146405 1
89.88221 0.50650513 5.3283167 1
-49.012939 0.78067338 5.2041779 1
89.876579 0.70235997 5.2904277 1
-11.835605 1.5477364 5.2291298 0
-11.740366 1.561394 5.2894301 0
-11.828642 1.6678559 5.2689385 8.8000002
-11.734138 1.7171513 5.3355632 11
-11.338654 1.7706918 5.3906474 1
-11.856852 1.8805003 5.3190961 33.375
